ply
format ascii 1.0
element vertex 1193
property float x
property float y
property float z
property uchar red
property uchar green
property uchar blue
end_header
10.839378 1.886010 -20.327461 35 37 30 
10.880829 1.886010 -20.327461 34 33 27 
10.922279 1.886010 -20.327461 33 25 24 
10.963731 1.886010 -20.327461 39 33 34 
11.005181 1.886010 -20.327461 39 40 32 
17.281250 2.843750 -30.650000 40 38 32 
17.343750 2.843750 -30.650000 37 37 28 
17.406250 2.843750 -30.650000 35 27 25 
17.468750 2.843750 -30.650000 34 27 28 
14.180685 2.267913 -24.443613 43 42 36 
14.230530 2.267913 -24.443613 40 34 32 
14.280374 2.267913 -24.443613 37 28 28 
14.330218 2.267913 -24.443613 39 35 34 
14.380062 2.267913 -24.443613 42 38 34 
14.429907 2.267913 -24.443613 37 31 28 
14.479751 2.267913 -24.443613 38 28 28 
14.529595 2.267913 -24.443613 42 39 36 
14.579439 2.267913 -24.443613 44 41 37 
14.629284 2.267913 -24.443613 41 31 33 
14.679128 2.267913 -24.443613 36 28 32 
14.728972 2.267913 -24.443613 37 36 34 
-5.356282 1.225473 -13.504992 45 47 48 
-5.328743 1.225473 -13.504992 47 48 51 
-5.310345 1.227586 -13.528275 56 54 60 
-5.301038 1.231834 -13.575087 68 68 64 
-5.273356 1.231834 -13.575087 61 74 61 
-5.254766 1.233969 -13.598614 64 72 63 
-5.236111 1.236111 -13.622222 73 78 63 
-5.226481 1.240418 -13.669686 66 78 54 
-5.225919 1.246935 -13.741506 59 68 51 
-5.243816 1.257951 -13.862897 61 64 57 
-5.262032 1.269162 -13.986453 68 74 67 
-5.271095 1.278276 -14.086894 70 82 73 
-5.261261 1.282883 -14.137657 73 79 75 
-5.289618 1.296903 -14.292168 70 79 73 
-5.289377 1.304029 -14.370696 65 79 77 
-5.279412 1.308824 -14.423530 74 74 65 
-5.259668 1.311234 -14.450092 67 67 55 
-5.269017 1.320965 -14.557328 69 68 67 
-5.278505 1.330841 -14.666168 93 98 102 
-5.268293 1.335835 -14.721201 108 129 105 
-5.248120 1.338346 -14.748872 98 118 84 
-5.227872 1.340866 -14.776648 65 81 71 
-5.207547 1.343396 -14.804528 65 74 65 
-5.187146 1.345936 -14.832514 65 76 58 
-5.166667 1.348485 -14.860606 67 74 56 
-5.165714 1.356190 -14.945523 70 79 64 
-5.164751 1.363985 -15.031418 83 87 77 
-5.203884 1.382524 -15.235728 92 102 79 
-5.203125 1.390625 -15.325000 88 111 89 
-5.192157 1.396078 -15.385098 85 105 102 
-5.222222 1.412698 -15.568254 93 107 96 
-5.211155 1.418327 -15.630279 113 119 98 
-5.220883 1.429719 -15.755823 119 126 100 
-5.209677 1.435484 -15.819355 89 107 98 
-5.208925 1.444219 -15.915619 77 87 78 
-5.186992 1.447155 -15.947968 75 77 65 
-5.164969 1.450102 -15.980448 74 70 59 
-5.132383 1.450102 -15.980448 81 68 58 
-5.089431 1.447155 -15.947968 85 69 57 
-5.056911 1.447155 -15.947968 85 73 60 
-5.004048 1.441296 -15.883401 89 77 62 
-4.971660 1.441296 -15.883401 97 80 68 
-5.780000 1.780000 -19.615999 72 74 65 
-5.754386 1.784461 -19.665163 70 73 66 
-5.714286 1.784461 -19.665163 83 83 70 
-5.688442 1.788945 -19.714573 90 93 63 
-5.793815 1.835052 -20.222681 84 79 57 
-5.952000 1.898667 -20.923733 76 75 65 
-5.941019 1.908847 -21.035925 73 72 66 
-5.898123 1.908847 -21.035925 82 70 62 
-5.902703 1.924324 -21.206486 85 70 58 
-5.956044 1.956044 -21.556044 83 69 58 
-5.865169 2.000000 -22.040449 87 78 60 
-5.820225 2.000000 -22.040449 89 77 62 
-5.840909 2.022727 -22.290909 88 77 60 
-5.895954 2.057803 -22.677456 89 73 59 
-5.918128 2.081871 -22.942690 91 79 67 
-2.925926 1.098765 -12.108642 72 74 70 
-2.901235 1.098765 -12.108642 77 75 70 
-2.912500 1.112500 -12.260000 71 65 58 
-2.887500 1.112500 -12.260000 77 75 58 
-2.862500 1.112500 -12.260000 84 81 60 
-3.546875 1.390625 -15.325000 64 63 45 
-3.515625 1.390625 -15.325000 40 40 38 
-3.484375 1.390625 -15.325000 94 74 71 
-1.544643 0.794643 -8.757143 86 82 53 
-1.526786 0.794643 -8.757143 89 96 58 
-1.508929 0.794643 -8.757143 85 94 59 
-1.491071 0.794643 -8.757143 83 91 71 
-1.473214 0.794643 -8.757143 94 93 74 
-1.455357 0.794643 -8.757143 94 97 67 
-1.437500 0.794643 -8.757143 102 103 67 
-1.419643 0.794643 -8.757143 104 108 73 
-1.401786 0.794643 -8.757143 106 123 89 
-1.383929 0.794643 -8.757143 119 128 100 
-1.366071 0.794643 -8.757143 129 133 106 
-1.348214 0.794643 -8.757143 132 138 115 
-1.330357 0.794643 -8.757143 137 134 112 
-1.312500 0.794643 -8.757143 63 76 66 
-1.294643 0.794643 -8.757143 63 66 56 
-1.276786 0.794643 -8.757143 62 65 55 
-1.258929 0.794643 -8.757143 52 60 47 
-2.895833 1.854167 -20.433332 69 67 56 
-1.162500 1.112500 -12.260000 104 78 62 
-1.137500 1.112500 -12.260000 139 104 74 
-1.112500 1.112500 -12.260000 174 145 123 
-0.906250 0.927083 -10.216666 214 189 196 
-0.885417 0.927083 -10.216666 245 233 227 
-0.864583 0.927083 -10.216666 255 254 248 
-0.843750 0.927083 -10.216666 255 255 255 
-0.822917 0.927083 -10.216666 255 255 255 
7.843750 2.781250 -30.650000 95 88 79 
7.906250 2.781250 -30.650000 94 88 80 
7.968750 2.781250 -30.650000 95 88 80 
8.031250 2.781250 -30.650000 95 88 79 
8.093750 2.781250 -30.650000 95 87 78 
8.156250 2.781250 -30.650000 94 86 78 
8.218750 2.781250 -30.650000 94 86 77 
8.281250 2.781250 -30.650000 92 85 76 
8.343750 2.781250 -30.650000 92 87 77 
8.406250 2.781250 -30.650000 93 87 78 
8.468750 2.781250 -30.650000 94 86 78 
8.531250 2.781250 -30.650000 94 85 78 
8.593750 2.781250 -30.650000 94 85 75 
8.656250 2.781250 -30.650000 93 85 76 
8.718750 2.781250 -30.650000 93 87 77 
9.531250 2.781250 -30.650000 92 85 77 
9.593750 2.781250 -30.650000 91 84 76 
9.656250 2.781250 -30.650000 92 84 77 
9.718750 2.781250 -30.650000 92 83 76 
9.781250 2.781250 -30.650000 90 84 74 
9.843750 2.781250 -30.650000 90 83 75 
9.906250 2.781250 -30.650000 91 83 76 
11.147058 2.617647 -28.847059 21 19 19 
11.205882 2.617647 -28.847059 20 19 20 
11.264706 2.617647 -28.847059 19 19 19 
11.323529 2.617647 -28.847059 18 18 19 
11.382353 2.617647 -28.847059 18 18 19 
11.441176 2.617647 -28.847059 19 19 19 
11.500000 2.617647 -28.847059 21 19 17 
11.558824 2.617647 -28.847059 22 18 16 
11.617647 2.617647 -28.847059 23 18 15 
11.676471 2.617647 -28.847059 22 17 15 
11.735294 2.617647 -28.847059 22 18 14 
11.794118 2.617647 -28.847059 22 18 15 
11.852942 2.617647 -28.847059 22 18 15 
11.911765 2.617647 -28.847059 22 19 16 
11.970589 2.617647 -28.847059 21 20 17 
12.029411 2.617647 -28.847059 18 20 19 
12.088235 2.617647 -28.847059 19 20 20 
12.102564 2.608059 -28.741392 19 20 20 
12.161172 2.608059 -28.741392 19 20 20 
12.219780 2.608059 -28.741392 20 19 19 
12.323529 2.617647 -28.847059 21 20 20 
12.382353 2.617647 -28.847059 22 20 19 
12.441176 2.617647 -28.847059 24 19 16 
12.500000 2.617647 -28.847059 25 19 14 
12.558824 2.617647 -28.847059 24 19 14 
12.617647 2.617647 -28.847059 23 20 15 
12.676471 2.617647 -28.847059 23 20 17 
12.735294 2.617647 -28.847059 21 21 20 
12.794118 2.617647 -28.847059 19 22 23 
12.852942 2.617647 -28.847059 18 22 25 
12.911765 2.617647 -28.847059 19 23 26 
12.970589 2.617647 -28.847059 22 23 23 
13.029411 2.617647 -28.847059 24 23 20 
13.088235 2.617647 -28.847059 26 22 17 
13.147058 2.617647 -28.847059 27 22 16 
13.205882 2.617647 -28.847059 28 22 16 
13.264706 2.617647 -28.847059 28 21 15 
13.323529 2.617647 -28.847059 26 22 17 
13.431734 2.627306 -28.953505 23 23 23 
13.490775 2.627306 -28.953505 20 24 26 
13.549815 2.627306 -28.953505 19 24 27 
13.608856 2.627306 -28.953505 19 24 27 
13.667896 2.627306 -28.953505 21 24 26 
13.726937 2.627306 -28.953505 24 24 23 
13.785978 2.627306 -28.953505 27 22 17 
13.845018 2.627306 -28.953505 29 21 15 
13.904059 2.627306 -28.953505 28 22 16 
14.014814 2.637037 -29.060740 27 22 18 
14.074074 2.637037 -29.060740 24 22 19 
10.341969 1.844560 -20.327461 20 22 23 
10.383420 1.844560 -20.327461 20 23 26 
10.397933 1.839793 -20.274935 19 23 25 
10.439277 1.839793 -20.274935 18 21 24 
10.507772 1.844560 -20.327461 20 21 22 
10.549223 1.844560 -20.327461 24 22 21 
10.590673 1.844560 -20.327461 25 21 18 
10.632124 1.844560 -20.327461 24 19 15 
10.673575 1.844560 -20.327461 24 19 17 
10.715026 1.844560 -20.327461 24 21 19 
10.756476 1.844560 -20.327461 23 19 18 
10.797928 1.844560 -20.327461 20 19 19 
10.839378 1.844560 -20.327461 21 21 23 
10.880829 1.844560 -20.327461 20 24 26 
10.922279 1.844560 -20.327461 19 21 24 
10.963731 1.844560 -20.327461 20 19 22 
11.005181 1.844560 -20.327461 22 21 21 
11.046632 1.844560 -20.327461 24 23 20 
14.130841 2.218069 -24.443613 27 20 19 
14.180685 2.218069 -24.443613 29 26 22 
14.230530 2.218069 -24.443613 30 33 26 
14.280374 2.218069 -24.443613 29 27 25 
14.330218 2.218069 -24.443613 27 23 26 
14.380062 2.218069 -24.443613 31 27 27 
14.429907 2.218069 -24.443613 31 30 27 
14.434783 2.211180 -24.367702 29 25 22 
14.484472 2.211180 -24.367702 29 24 25 
14.534162 2.211180 -24.367702 33 33 28 
14.583851 2.211180 -24.367702 35 35 34 
14.633540 2.211180 -24.367702 34 26 26 
14.683229 2.211180 -24.367702 31 24 26 
-5.365517 1.200000 -13.528275 46 43 50 
-5.337931 1.200000 -13.528275 48 47 51 
-5.319516 1.202073 -13.551641 51 49 51 
-5.301038 1.204152 -13.575087 58 51 53 
-5.273356 1.204152 -13.575087 60 59 56 
-5.263889 1.208333 -13.622222 73 71 70 
-5.236111 1.208333 -13.622222 87 84 74 
-5.226481 1.212544 -13.669686 77 87 64 
-5.225919 1.218914 -13.741506 64 76 57 
-5.243816 1.229682 -13.862897 59 64 52 
-5.262032 1.240642 -13.986453 54 61 54 
-5.261649 1.247312 -14.061648 60 71 62 
-5.251799 1.251799 -14.112230 79 85 84 
-5.280000 1.265455 -14.266182 85 89 88 
-5.279707 1.272395 -14.344424 73 79 75 
-5.279412 1.279412 -14.423530 73 73 65 
-5.259668 1.281768 -14.450092 70 71 59 
-5.259259 1.288889 -14.530370 64 74 67 
-5.278505 1.300935 -14.666168 75 83 74 
-5.258427 1.303371 -14.693633 73 92 69 
-5.238274 1.305816 -14.721201 75 87 68 
-5.218045 1.308271 -14.748872 81 84 77 
-5.197740 1.310735 -14.776648 76 92 82 
-5.177359 1.313208 -14.804528 67 87 66 
-5.166667 1.318182 -14.860606 63 75 53 
-5.155893 1.323194 -14.917110 64 73 55 
-5.154876 1.330784 -15.002677 74 74 59 
-5.193799 1.348837 -15.206202 81 85 65 
-5.192983 1.356725 -15.295127 82 94 76 
-5.192157 1.364706 -15.385098 79 93 79 
-5.232605 1.383698 -15.599205 88 91 78 
-5.211155 1.386454 -15.630279 91 91 82 
-5.220883 1.397590 -15.755823 99 103 84 
-5.209677 1.403226 -15.819355 86 105 87 
-5.208925 1.411765 -15.915619 88 98 84 
-5.186992 1.414634 -15.947968 88 101 89 
-5.164969 1.417515 -15.980448 88 93 81 
-5.132383 1.417515 -15.980448 91 84 68 
-5.089431 1.414634 -15.947968 84 76 62 
-5.056911 1.414634 -15.947968 81 71 58 
-5.014199 1.411765 -15.915619 93 74 63 
-4.981744 1.411765 -15.915619 105 89 87 
-5.881188 1.722772 -19.421782 69 66 54 
-5.841584 1.722772 -19.421782 69 66 56 
-5.816377 1.727047 -19.469975 72 63 57 
-5.776675 1.727047 -19.469975 78 70 59 
-5.780000 1.740000 -19.615999 76 72 61 
-5.740000 1.740000 -19.615999 72 65 61 
-5.714286 1.744361 -19.665163 77 70 65 
-5.674185 1.744361 -19.665163 81 80 66 
-5.648241 1.748744 -19.714573 77 77 56 
-5.752577 1.793814 -20.222681 72 74 63 
-5.831579 1.831579 -20.648420 70 71 59 
-5.866667 1.856000 -20.923733 83 71 58 
-5.855228 1.865952 -21.035925 90 77 61 
-5.859459 1.881081 -21.206486 90 77 61 
-5.832402 1.944134 -21.917318 97 81 66 
-5.723757 1.922652 -21.675138 101 81 67 
-5.807909 1.966102 -22.164972 92 79 64 
-5.862069 2.000000 -22.547127 89 72 59 
-2.925926 1.074074 -12.108642 70 68 64 
-2.901235 1.074074 -12.108642 71 68 56 
-2.912500 1.087500 -12.260000 69 64 50 
-2.887500 1.087500 -12.260000 68 64 49 
-2.862500 1.087500 -12.260000 71 71 54 
-3.546875 1.359375 -15.325000 56 61 45 
-3.515625 1.359375 -15.325000 38 40 40 
-3.484375 1.359375 -15.325000 82 68 64 
-1.544643 0.776786 -8.757143 88 94 63 
-1.526786 0.776786 -8.757143 96 102 65 
-1.508929 0.776786 -8.757143 81 88 50 
-1.491071 0.776786 -8.757143 76 84 55 
-1.473214 0.776786 -8.757143 80 89 74 
-1.455357 0.776786 -8.757143 84 85 68 
-1.437500 0.776786 -8.757143 101 95 61 
-1.419643 0.776786 -8.757143 110 112 72 
-1.401786 0.776786 -8.757143 102 112 86 
-1.383929 0.776786 -8.757143 101 109 90 
-1.366071 0.776786 -8.757143 97 105 83 
-1.348214 0.776786 -8.757143 109 112 104 
-1.330357 0.776786 -8.757143 124 128 111 
-1.312500 0.776786 -8.757143 61 75 62 
-1.294643 0.776786 -8.757143 62 67 55 
-1.276786 0.776786 -8.757143 57 64 51 
-1.258929 0.776786 -8.757143 51 58 48 
-2.895833 1.812500 -20.433332 91 81 69 
-1.162500 1.087500 -12.260000 115 84 67 
-1.137500 1.087500 -12.260000 147 112 87 
-1.112500 1.087500 -12.260000 176 153 126 
-0.906250 0.906250 -10.216666 198 184 150 
-0.885417 0.906250 -10.216666 233 224 216 
-0.864583 0.906250 -10.216666 254 253 254 
-0.843750 0.906250 -10.216666 255 255 255 
-0.822917 0.906250 -10.216666 255 255 251 
7.906250 2.718750 -30.650000 93 88 78 
7.968750 2.718750 -30.650000 94 88 79 
8.031250 2.718750 -30.650000 94 87 79 
8.093750 2.718750 -30.650000 93 86 77 
8.156250 2.718750 -30.650000 92 85 77 
8.218750 2.718750 -30.650000 92 84 75 
8.281250 2.718750 -30.650000 90 84 74 
8.343750 2.718750 -30.650000 91 87 77 
8.406250 2.718750 -30.650000 93 87 77 
8.468750 2.718750 -30.650000 93 86 78 
8.531250 2.718750 -30.650000 92 86 76 
8.593750 2.718750 -30.650000 93 85 75 
8.656250 2.718750 -30.650000 93 85 76 
8.718750 2.718750 -30.650000 92 86 76 
9.531250 2.718750 -30.650000 91 84 75 
9.593750 2.718750 -30.650000 90 83 75 
9.656250 2.718750 -30.650000 91 82 76 
9.718750 2.718750 -30.650000 90 83 75 
9.781250 2.718750 -30.650000 89 84 74 
9.843750 2.718750 -30.650000 90 84 75 
9.906250 2.718750 -30.650000 90 84 76 
11.147058 2.558824 -28.847059 19 16 15 
11.205882 2.558824 -28.847059 19 16 16 
11.264706 2.558824 -28.847059 18 16 14 
11.323529 2.558824 -28.847059 19 16 13 
11.382353 2.558824 -28.847059 19 16 14 
11.483395 2.568266 -28.953505 20 18 14 
11.542436 2.568266 -28.953505 21 18 16 
11.601476 2.568266 -28.953505 21 18 16 
11.660517 2.568266 -28.953505 20 17 16 
11.719557 2.568266 -28.953505 21 17 16 
11.735294 2.558824 -28.847059 20 17 15 
11.794118 2.558824 -28.847059 20 17 15 
11.852942 2.558824 -28.847059 21 17 15 
11.911765 2.558824 -28.847059 20 16 14 
11.970589 2.558824 -28.847059 20 16 14 
12.029411 2.558824 -28.847059 19 16 14 
12.088235 2.558824 -28.847059 19 17 14 
12.102564 2.549451 -28.741392 18 16 14 
12.161172 2.549451 -28.741392 18 16 14 
12.219780 2.549451 -28.741392 18 15 13 
12.323529 2.558824 -28.847059 19 15 13 
12.382353 2.558824 -28.847059 19 15 13 
12.441176 2.558824 -28.847059 20 15 14 
12.500000 2.558824 -28.847059 20 15 13 
12.558824 2.558824 -28.847059 19 15 13 
12.617647 2.558824 -28.847059 19 15 13 
12.676471 2.558824 -28.847059 18 15 13 
12.735294 2.558824 -28.847059 17 15 13 
12.794118 2.558824 -28.847059 17 14 14 
12.852942 2.558824 -28.847059 17 14 14 
12.911765 2.558824 -28.847059 17 15 15 
12.970589 2.558824 -28.847059 17 15 14 
13.029411 2.558824 -28.847059 17 14 14 
13.088235 2.558824 -28.847059 17 14 14 
13.147058 2.558824 -28.847059 16 15 13 
13.205882 2.558824 -28.847059 17 15 14 
13.264706 2.558824 -28.847059 17 14 13 
13.323529 2.558824 -28.847059 16 14 12 
13.382353 2.558824 -28.847059 16 14 14 
13.490775 2.568266 -28.953505 16 14 15 
13.549815 2.568266 -28.953505 17 15 15 
13.608856 2.568266 -28.953505 18 15 14 
13.667896 2.568266 -28.953505 18 15 14 
13.726937 2.568266 -28.953505 18 15 13 
13.785978 2.568266 -28.953505 18 14 13 
13.845018 2.568266 -28.953505 18 15 12 
13.904059 2.568266 -28.953505 19 16 13 
13.963099 2.568266 -28.953505 19 17 15 
14.022141 2.568266 -28.953505 17 18 16 
14.133333 2.577778 -29.060740 16 18 16 
10.356589 1.798450 -20.274935 17 21 24 
10.397933 1.798450 -20.274935 19 21 22 
10.439277 1.798450 -20.274935 21 22 20 
10.480620 1.798450 -20.274935 23 22 18 
10.549223 1.803109 -20.327461 26 21 16 
10.590673 1.803109 -20.327461 27 20 15 
10.632124 1.803109 -20.327461 27 20 15 
10.673575 1.803109 -20.327461 27 20 16 
10.715026 1.803109 -20.327461 24 22 20 
10.756476 1.803109 -20.327461 20 24 23 
10.797928 1.803109 -20.327461 18 25 26 
10.839378 1.803109 -20.327461 18 25 28 
10.880829 1.803109 -20.327461 19 24 28 
10.922279 1.803109 -20.327461 20 24 26 
10.963731 1.803109 -20.327461 23 22 21 
11.005181 1.803109 -20.327461 27 23 17 
11.046632 1.803109 -20.327461 29 23 15 
11.088083 1.803109 -20.327461 30 23 16 
14.037267 2.161491 -24.367702 27 25 22 
14.086957 2.161491 -24.367702 21 24 24 
14.180685 2.168224 -24.443613 19 26 27 
14.230530 2.168224 -24.443613 20 29 32 
14.280374 2.168224 -24.443613 21 29 32 
14.330218 2.168224 -24.443613 22 25 28 
14.335403 2.161491 -24.367702 25 25 24 
14.385093 2.161491 -24.367702 30 27 21 
14.434783 2.161491 -24.367702 32 25 18 
14.484472 2.161491 -24.367702 31 22 16 
14.534162 2.161491 -24.367702 30 23 18 
14.583851 2.161491 -24.367702 30 27 21 
14.633540 2.161491 -24.367702 27 26 23 
14.683229 2.161491 -24.367702 21 23 26 
-5.365517 1.172414 -13.528275 59 53 61 
-5.337931 1.172414 -13.528275 56 65 71 
-5.319516 1.174439 -13.551641 52 59 58 
-5.301038 1.176471 -13.575087 59 54 54 
-5.282495 1.178509 -13.598614 69 67 64 
-5.263889 1.180556 -13.622222 86 84 75 
-5.236111 1.180556 -13.622222 85 92 77 
-5.226481 1.184669 -13.669686 82 91 69 
-5.225919 1.190893 -13.741506 72 88 66 
-5.243816 1.201413 -13.862897 69 80 69 
-5.262032 1.212121 -13.986453 63 68 62 
-5.252236 1.216458 -14.036493 50 57 51 
-5.251799 1.223022 -14.112230 63 61 64 
-5.270417 1.234120 -14.240291 89 84 82 
-5.270073 1.240876 -14.318248 91 99 94 
-5.269725 1.247706 -14.397064 66 83 77 
-5.250000 1.250000 -14.423530 60 62 50 
-5.249538 1.256932 -14.503511 57 63 53 
-5.258845 1.266294 -14.611546 66 72 62 
-5.248598 1.271028 -14.666168 61 74 60 
-5.238274 1.275797 -14.721201 75 80 70 
-5.218045 1.278196 -14.748872 111 97 94 
-5.187970 1.278196 -14.748872 94 103 88 
-5.167608 1.280603 -14.776648 76 93 72 
-5.156900 1.285444 -14.832514 71 78 60 
-5.146110 1.290323 -14.888804 62 69 57 
-5.135238 1.295238 -14.945523 61 66 58 
-5.183753 1.315280 -15.176789 73 72 64 
-5.192983 1.325536 -15.295127 86 84 78 
-5.192157 1.333333 -15.385098 77 86 74 
-5.232605 1.351889 -15.599205 88 84 75 
-5.221557 1.357285 -15.661477 93 90 81 
-5.220883 1.365462 -15.755823 76 90 68 
-5.209677 1.370968 -15.819355 69 82 63 
-5.187879 1.373737 -15.851313 74 79 64 
-5.176471 1.379310 -15.915619 77 85 73 
-5.154471 1.382114 -15.947968 95 99 87 
-5.121951 1.382114 -15.947968 99 101 86 
-5.089431 1.382114 -15.947968 87 83 67 
-5.046653 1.379310 -15.915619 85 72 60 
-5.014199 1.379310 -15.915619 101 81 72 
-5.906173 1.679012 -19.373827 63 63 50 
-5.866667 1.679012 -19.373827 67 64 53 
-5.841584 1.683168 -19.421782 66 68 54 
-5.816377 1.687345 -19.469975 70 63 53 
-5.776675 1.687345 -19.469975 74 67 56 
-5.765586 1.695761 -19.567081 76 69 57 
-5.740000 1.700000 -19.615999 73 64 60 
-5.700000 1.700000 -19.615999 72 64 61 
-5.674185 1.704261 -19.665163 74 68 62 
-5.648241 1.708543 -19.714573 72 70 58 
-5.752577 1.752577 -20.222681 78 81 63 
-5.770833 1.770833 -20.433332 86 86 63 
-5.789474 1.789474 -20.648420 85 82 63 
-5.824000 1.813333 -20.923733 87 80 65 
-5.812333 1.823056 -21.035925 93 83 66 
-5.752066 1.873278 -21.615427 100 81 68 
-5.707989 1.873278 -21.615427 104 86 73 
-5.679558 1.878453 -21.675138 90 79 65 
-5.845272 1.948424 -22.482521 84 70 67 
-5.849711 1.965318 -22.677456 76 66 62 
-2.925926 1.049383 -12.108642 72 73 65 
-2.901235 1.049383 -12.108642 64 63 51 
-2.912500 1.062500 -12.260000 66 68 55 
-2.887500 1.062500 -12.260000 66 68 56 
-2.862500 1.062500 -12.260000 68 66 52 
-3.546875 1.328125 -15.325000 55 59 45 
-3.515625 1.328125 -15.325000 42 42 43 
-3.484375 1.328125 -15.325000 77 68 65 
-1.544643 0.758929 -8.757143 74 80 64 
-1.526786 0.758929 -8.757143 81 84 60 
-1.508929 0.758929 -8.757143 65 71 44 
-1.491071 0.758929 -8.757143 60 70 43 
-1.473214 0.758929 -8.757143 61 67 47 
-1.455357 0.758929 -8.757143 71 70 50 
-1.437500 0.758929 -8.757143 83 87 58 
-1.419643 0.758929 -8.757143 89 101 71 
-1.401786 0.758929 -8.757143 94 96 69 
-1.383929 0.758929 -8.757143 101 99 69 
-1.366071 0.758929 -8.757143 110 100 76 
-1.348214 0.758929 -8.757143 131 125 107 
-1.330357 0.758929 -8.757143 141 153 133 
-1.312500 0.758929 -8.757143 75 85 63 
-1.294643 0.758929 -8.757143 63 65 46 
-1.276786 0.758929 -8.757143 60 64 46 
-1.258929 0.758929 -8.757143 64 67 52 
-2.895833 1.770833 -20.433332 91 85 70 
-1.162500 1.062500 -12.260000 132 96 85 
-1.137500 1.062500 -12.260000 146 116 94 
-1.112500 1.062500 -12.260000 164 135 105 
-0.906250 0.885417 -10.216666 203 174 147 
-0.885417 0.885417 -10.216666 237 218 206 
-0.864583 0.885417 -10.216666 254 252 248 
-0.843750 0.885417 -10.216666 255 255 254 
-0.822917 0.885417 -10.216666 254 252 241 
7.968750 2.656250 -30.650000 93 88 76 
8.031250 2.656250 -30.650000 94 87 78 
8.093750 2.656250 -30.650000 93 86 77 
8.156250 2.656250 -30.650000 92 85 78 
8.218750 2.656250 -30.650000 92 84 77 
8.281250 2.656250 -30.650000 91 85 75 
8.343750 2.656250 -30.650000 91 85 76 
8.406250 2.656250 -30.650000 91 86 76 
3.697063 1.051005 -12.127357 91 85 77 
3.721793 1.051005 -12.127357 91 84 77 
9.531250 2.656250 -30.650000 90 83 75 
9.593750 2.656250 -30.650000 89 82 74 
9.656250 2.656250 -30.650000 89 83 74 
9.718750 2.656250 -30.650000 89 83 74 
9.781250 2.656250 -30.650000 88 83 75 
9.843750 2.656250 -30.650000 91 83 76 
9.906250 2.656250 -30.650000 92 84 75 
11.247232 2.509225 -28.953505 19 17 15 
11.306273 2.509225 -28.953505 20 18 15 
11.365314 2.509225 -28.953505 26 23 18 
11.424355 2.509225 -28.953505 33 28 21 
11.525926 2.518518 -29.060740 36 31 22 
11.585185 2.518518 -29.060740 37 31 24 
11.644444 2.518518 -29.060740 36 30 23 
11.703704 2.518518 -29.060740 36 30 23 
11.719557 2.509225 -28.953505 36 30 23 
11.778598 2.509225 -28.953505 36 30 23 
11.794118 2.500000 -28.847059 36 30 23 
11.852942 2.500000 -28.847059 36 30 23 
11.911765 2.500000 -28.847059 35 30 23 
11.970589 2.500000 -28.847059 34 29 23 
12.029411 2.500000 -28.847059 34 30 23 
12.088235 2.500000 -28.847059 33 30 23 
12.102564 2.490843 -28.741392 32 28 22 
12.161172 2.490843 -28.741392 31 26 21 
12.219780 2.490843 -28.741392 31 26 20 
12.278388 2.490843 -28.741392 32 26 21 
12.382353 2.500000 -28.847059 33 27 20 
12.441176 2.500000 -28.847059 33 26 20 
12.500000 2.500000 -28.847059 32 25 21 
12.558824 2.500000 -28.847059 31 25 21 
12.617647 2.500000 -28.847059 30 25 20 
12.676471 2.500000 -28.847059 29 25 20 
12.735294 2.500000 -28.847059 29 25 21 
12.794118 2.500000 -28.847059 28 24 20 
12.852942 2.500000 -28.847059 27 24 20 
12.911765 2.500000 -28.847059 27 23 20 
12.970589 2.500000 -28.847059 27 23 19 
13.029411 2.500000 -28.847059 27 23 19 
13.088235 2.500000 -28.847059 27 22 19 
13.147058 2.500000 -28.847059 25 21 17 
13.205882 2.500000 -28.847059 25 20 17 
13.264706 2.500000 -28.847059 24 19 16 
13.323529 2.500000 -28.847059 22 18 16 
13.382353 2.500000 -28.847059 21 19 17 
13.441176 2.500000 -28.847059 21 20 18 
13.500000 2.500000 -28.847059 22 20 18 
13.558824 2.500000 -28.847059 21 19 17 
13.617647 2.500000 -28.847059 21 19 17 
13.726937 2.509225 -28.953505 21 18 16 
13.785978 2.509225 -28.953505 21 17 15 
13.845018 2.509225 -28.953505 21 17 14 
13.904059 2.509225 -28.953505 21 17 13 
13.963099 2.509225 -28.953505 21 16 13 
14.022141 2.509225 -28.953505 20 16 14 
14.081181 2.509225 -28.953505 19 17 14 
14.140222 2.509225 -28.953505 18 17 14 
10.356589 1.757106 -20.274935 16 13 12 
10.397933 1.757106 -20.274935 15 13 12 
10.439277 1.757106 -20.274935 15 13 13 
10.480620 1.757106 -20.274935 15 14 13 
10.521964 1.757106 -20.274935 15 13 14 
10.590673 1.761658 -20.327461 15 13 14 
10.632124 1.761658 -20.327461 16 12 13 
10.673575 1.761658 -20.327461 16 12 12 
10.715026 1.761658 -20.327461 16 13 10 
10.756476 1.761658 -20.327461 15 13 11 
10.797928 1.761658 -20.327461 15 13 12 
10.839378 1.761658 -20.327461 16 13 11 
10.880829 1.761658 -20.327461 16 13 11 
10.922279 1.761658 -20.327461 15 13 11 
10.963731 1.761658 -20.327461 15 12 10 
11.005181 1.761658 -20.327461 15 12 10 
11.046632 1.761658 -20.327461 15 13 10 
11.088083 1.761658 -20.327461 15 14 12 
11.129534 1.761658 -20.327461 14 14 13 
13.739130 2.111801 -24.367702 18 16 12 
13.788820 2.111801 -24.367702 19 16 13 
13.838510 2.111801 -24.367702 19 15 12 
13.888199 2.111801 -24.367702 18 15 13 
13.937888 2.111801 -24.367702 18 15 13 
13.987577 2.111801 -24.367702 18 16 15 
14.037267 2.111801 -24.367702 16 17 16 
14.086957 2.111801 -24.367702 15 18 18 
14.136646 2.111801 -24.367702 13 18 18 
14.186336 2.111801 -24.367702 15 19 18 
14.236025 2.111801 -24.367702 18 19 17 
14.285714 2.111801 -24.367702 20 19 16 
14.335403 2.111801 -24.367702 22 20 14 
14.385093 2.111801 -24.367702 25 20 13 
14.434783 2.111801 -24.367702 26 19 14 
14.484472 2.111801 -24.367702 24 19 15 
14.534162 2.111801 -24.367702 21 20 16 
14.583851 2.111801 -24.367702 19 22 19 
-5.356282 1.142857 -13.504992 52 51 53 
-5.328743 1.142857 -13.504992 53 57 58 
-5.310345 1.144828 -13.528275 50 54 54 
-5.301038 1.148789 -13.575087 47 51 51 
-5.282495 1.150780 -13.598614 56 56 60 
-5.263889 1.152778 -13.622222 76 70 69 
-5.236111 1.152778 -13.622222 73 82 71 
-5.235602 1.158813 -13.693542 67 75 65 
-5.235088 1.164912 -13.765614 63 73 63 
-5.253098 1.175221 -13.887433 64 76 64 
-5.262032 1.183601 -13.986453 72 80 70 
-5.252236 1.187835 -14.036493 64 78 73 
-5.242370 1.192101 -14.086894 81 84 89 
-5.251356 1.200723 -14.188788 102 102 109 
-5.260474 1.209472 -14.292168 104 102 87 
-5.260073 1.216117 -14.370696 69 84 65 
-5.250000 1.220588 -14.423530 58 60 57 
-5.230203 1.222836 -14.450092 55 57 49 
-5.239332 1.231911 -14.557328 60 67 55 
-5.229050 1.236499 -14.611546 62 75 59 
-5.228465 1.243446 -14.693633 73 75 60 
-5.208255 1.245779 -14.721201 92 93 72 
-5.187970 1.248120 -14.748872 86 100 71 
-5.157895 1.248120 -14.748872 80 90 69 
-5.156900 1.255198 -14.832514 90 91 75 
-5.146110 1.259962 -14.888804 83 91 73 
-5.135238 1.264762 -14.945523 73 85 73 
-5.183753 1.284333 -15.176789 79 82 72 
-5.192983 1.294347 -15.295127 91 84 78 
-5.212598 1.307087 -15.445669 78 85 78 
-5.243028 1.322709 -15.630279 67 79 71 
-5.232000 1.328000 -15.692800 77 84 72 
-5.220883 1.333333 -15.755823 74 89 72 
-5.209677 1.338710 -15.819355 71 83 68 
-5.177419 1.338710 -15.819355 73 78 62 
-5.165992 1.344130 -15.883401 76 79 63 
-5.144016 1.346856 -15.915619 90 89 76 
-5.111562 1.346856 -15.915619 95 98 77 
-5.079107 1.346856 -15.915619 100 90 74 
-5.046653 1.346856 -15.915619 95 79 63 
-5.014199 1.346856 -15.915619 89 81 69 
-5.945679 1.639506 -19.373827 69 66 52 
-5.877150 1.631450 -19.278624 65 65 49 
-5.852217 1.635468 -19.326109 67 67 50 
-5.841584 1.643564 -19.421782 69 71 52 
-5.816377 1.647643 -19.469975 68 65 50 
-5.776675 1.647643 -19.469975 67 60 50 
-5.765586 1.655860 -19.567081 77 65 56 
-5.740000 1.660000 -19.615999 76 70 58 
-5.700000 1.660000 -19.615999 76 65 55 
-5.674185 1.664160 -19.665163 77 65 57 
-5.648241 1.668342 -19.714573 71 65 61 
-5.708440 1.698210 -20.067518 79 75 58 
-5.726098 1.715762 -20.274935 87 82 57 
-5.729167 1.729167 -20.433332 83 79 60 
-5.747368 1.747368 -20.648420 77 76 62 
-5.812333 1.780161 -21.035925 79 80 70 
-5.736264 1.824176 -21.556044 93 75 67 
-5.676713 1.819178 -21.496986 112 90 79 
-5.663912 1.829201 -21.615427 97 85 69 
-5.795455 1.886364 -22.290909 87 77 74 
-5.799427 1.902579 -22.482521 87 80 71 
-5.820290 1.924638 -22.743189 85 79 68 
-2.925926 1.024691 -12.108642 81 90 69 
-2.901235 1.024691 -12.108642 70 79 59 
-2.912500 1.037500 -12.260000 72 78 62 
-2.887500 1.037500 -12.260000 65 73 64 
-2.862500 1.037500 -12.260000 58 57 48 
-3.546875 1.296875 -15.325000 47 46 40 
-3.515625 1.296875 -15.325000 51 48 53 
-3.484375 1.296875 -15.325000 102 86 84 
-1.544643 0.741071 -8.757143 62 70 53 
-1.526786 0.741071 -8.757143 68 73 56 
-1.508929 0.741071 -8.757143 67 63 45 
-1.491071 0.741071 -8.757143 64 64 44 
-1.473214 0.741071 -8.757143 56 57 42 
-1.455357 0.741071 -8.757143 68 64 54 
-1.437500 0.741071 -8.757143 75 74 55 
-1.419643 0.741071 -8.757143 80 88 63 
-1.401786 0.741071 -8.757143 95 100 82 
-1.383929 0.741071 -8.757143 112 106 87 
-1.366071 0.741071 -8.757143 127 113 96 
-1.348214 0.741071 -8.757143 123 141 114 
-1.330357 0.741071 -8.757143 122 144 115 
-1.312500 0.741071 -8.757143 73 81 57 
-1.294643 0.741071 -8.757143 54 54 40 
-1.276786 0.741071 -8.757143 53 54 43 
-1.258929 0.741071 -8.757143 67 64 53 
-2.895833 1.729167 -20.433332 102 86 70 
-1.162500 1.037500 -12.260000 131 107 94 
-1.137500 1.037500 -12.260000 155 137 121 
-1.112500 1.037500 -12.260000 166 143 125 
-0.906250 0.864583 -10.216666 206 179 170 
-0.885417 0.864583 -10.216666 246 234 224 
-0.864583 0.864583 -10.216666 252 251 244 
-0.843750 0.864583 -10.216666 253 253 248 
-0.822917 0.864583 -10.216666 248 230 193 
8.093750 2.593750 -30.650000 93 87 77 
8.156250 2.593750 -30.650000 92 85 77 
8.218750 2.593750 -30.650000 90 84 75 
8.281250 2.593750 -30.650000 91 85 74 
3.672334 1.026275 -12.127357 92 85 77 
3.674347 1.019969 -12.052841 92 84 76 
3.687596 1.016845 -12.015926 91 83 77 
3.712098 1.016845 -12.015926 89 83 76 
9.593750 2.593750 -30.650000 89 83 73 
9.656250 2.593750 -30.650000 88 82 73 
9.718750 2.593750 -30.650000 88 82 74 
9.781250 2.593750 -30.650000 88 82 73 
9.843750 2.593750 -30.650000 90 83 74 
9.906250 2.593750 -30.650000 92 84 76 
11.906250 2.593750 -30.650000 19 17 15 
11.475656 2.486891 -29.387266 22 21 16 
11.492537 2.477612 -29.277611 32 29 20 
11.552238 2.477612 -29.277611 39 35 24 
11.568773 2.468401 -29.168774 41 36 27 
11.628253 2.468401 -29.168774 43 36 27 
11.687733 2.468401 -29.168774 43 35 26 
11.747211 2.468401 -29.168774 42 36 27 
11.762963 2.459259 -29.060740 42 36 26 
11.822222 2.459259 -29.060740 42 36 27 
11.837638 2.450185 -28.953505 42 36 27 
11.852942 2.441176 -28.847059 43 36 28 
11.911765 2.441176 -28.847059 42 36 28 
11.970589 2.441176 -28.847059 42 36 27 
12.029411 2.441176 -28.847059 42 37 27 
12.043956 2.432235 -28.741392 42 37 26 
12.102564 2.432235 -28.741392 41 37 26 
12.161172 2.432235 -28.741392 41 36 26 
12.219780 2.432235 -28.741392 41 36 27 
12.278388 2.432235 -28.741392 41 36 26 
12.336996 2.432235 -28.741392 41 36 26 
12.395604 2.432235 -28.741392 41 35 26 
12.454212 2.432235 -28.741392 41 35 28 
12.512820 2.432235 -28.741392 41 35 28 
12.617647 2.441176 -28.847059 41 35 27 
12.676471 2.441176 -28.847059 41 34 26 
12.735294 2.441176 -28.847059 42 35 27 
12.794118 2.441176 -28.847059 40 34 26 
12.852942 2.441176 -28.847059 40 34 25 
12.911765 2.441176 -28.847059 40 34 26 
12.970589 2.441176 -28.847059 39 34 25 
13.029411 2.441176 -28.847059 39 34 25 
13.088235 2.441176 -28.847059 38 33 25 
13.147058 2.441176 -28.847059 37 33 24 
13.205882 2.441176 -28.847059 36 32 23 
13.264706 2.441176 -28.847059 36 31 23 
13.323529 2.441176 -28.847059 36 31 25 
13.382353 2.441176 -28.847059 36 32 25 
13.441176 2.441176 -28.847059 36 32 25 
13.500000 2.441176 -28.847059 36 31 24 
13.558824 2.441176 -28.847059 36 31 23 
13.617647 2.441176 -28.847059 36 31 22 
13.676471 2.441176 -28.847059 34 30 22 
13.785978 2.450185 -28.953505 35 29 22 
13.845018 2.450185 -28.953505 35 30 22 
13.904059 2.450185 -28.953505 34 29 22 
13.963099 2.450185 -28.953505 34 29 22 
14.022141 2.450185 -28.953505 33 28 22 
14.081181 2.450185 -28.953505 31 28 22 
14.140222 2.450185 -28.953505 31 28 23 
14.199262 2.450185 -28.953505 31 27 22 
14.311111 2.459259 -29.060740 30 26 21 
14.370370 2.459259 -29.060740 30 26 20 
10.397933 1.715762 -20.274935 25 22 20 
10.439277 1.715762 -20.274935 25 21 19 
10.480620 1.715762 -20.274935 25 21 18 
10.521964 1.715762 -20.274935 25 20 18 
10.563308 1.715762 -20.274935 24 20 17 
10.632124 1.720207 -20.327461 24 19 16 
10.673575 1.720207 -20.327461 23 18 15 
10.715026 1.720207 -20.327461 23 18 14 
10.756476 1.720207 -20.327461 22 18 14 
10.797928 1.720207 -20.327461 21 18 15 
10.839378 1.720207 -20.327461 20 18 15 
10.880829 1.720207 -20.327461 19 16 14 
10.922279 1.720207 -20.327461 19 15 13 
10.963731 1.720207 -20.327461 18 15 13 
11.005181 1.720207 -20.327461 19 16 13 
11.046632 1.720207 -20.327461 19 15 13 
11.088083 1.720207 -20.327461 19 15 13 
13.689441 2.062112 -24.367702 16 14 12 
13.739130 2.062112 -24.367702 15 13 12 
13.788820 2.062112 -24.367702 16 14 12 
13.838510 2.062112 -24.367702 16 13 12 
13.888199 2.062112 -24.367702 16 13 12 
13.937888 2.062112 -24.367702 15 12 11 
13.987577 2.062112 -24.367702 15 12 11 
14.037267 2.062112 -24.367702 15 12 11 
14.086957 2.062112 -24.367702 14 12 10 
14.136646 2.062112 -24.367702 13 12 10 
14.186336 2.062112 -24.367702 13 12 11 
14.236025 2.062112 -24.367702 14 13 11 
14.285714 2.062112 -24.367702 15 13 11 
14.335403 2.062112 -24.367702 15 13 11 
14.385093 2.062112 -24.367702 15 12 11 
14.434783 2.062112 -24.367702 15 12 11 
14.484472 2.062112 -24.367702 14 12 11 
14.534162 2.062112 -24.367702 14 12 11 
-5.356282 1.115318 -13.504992 51 60 48 
-5.328743 1.115318 -13.504992 50 51 50 
-5.310345 1.117241 -13.528275 56 58 67 
-5.301038 1.121107 -13.575087 65 65 69 
-5.282495 1.123050 -13.598614 56 58 55 
-5.263889 1.125000 -13.622222 50 54 56 
-5.245217 1.126956 -13.645913 55 63 65 
-5.244755 1.132867 -13.717483 60 70 65 
-5.244288 1.138840 -13.789806 62 70 67 
-5.262411 1.148936 -13.912057 58 66 63 
-5.262032 1.155080 -13.986453 60 68 69 
-5.252236 1.159213 -14.036493 73 84 78 
-5.242370 1.163375 -14.086894 100 102 92 
-5.232432 1.167568 -14.137657 109 124 122 
-5.241379 1.176044 -14.240291 108 113 100 
-5.250457 1.184644 -14.344424 68 85 73 
-5.240367 1.188991 -14.397064 54 58 57 
-5.220588 1.191176 -14.423530 54 54 48 
-5.219963 1.197782 -14.503511 57 59 48 
-5.219331 1.204461 -14.584387 67 73 59 
-5.228465 1.213483 -14.693633 76 80 59 
-5.208255 1.215760 -14.721201 75 83 62 
-5.187970 1.218045 -14.748872 78 88 71 
-5.167608 1.220339 -14.776648 89 97 81 
-5.156900 1.224953 -14.832514 101 103 84 
-5.155893 1.231939 -14.917110 87 97 72 
-5.145038 1.236641 -14.974046 72 85 69 
-5.193799 1.255814 -15.206202 82 86 76 
-5.203125 1.265625 -15.325000 86 95 89 
-5.222880 1.278106 -15.476134 79 99 97 
-5.243028 1.290837 -15.630279 80 91 83 
-5.232000 1.296000 -15.692800 80 82 79 
-5.220883 1.301205 -15.755823 74 77 76 
-5.199195 1.303823 -15.787525 77 80 70 
-5.177419 1.306452 -15.819355 83 85 76 
-5.155556 1.309091 -15.851313 91 91 82 
-5.144016 1.314402 -15.915619 86 89 75 
-5.111562 1.314402 -15.915619 91 93 74 
-5.079107 1.314402 -15.915619 105 106 88 
-5.046653 1.314402 -15.915619 100 95 73 
-5.014199 1.314402 -15.915619 80 76 63 
-5.985185 1.600000 -19.373827 77 68 56 
-5.916462 1.592138 -19.278624 82 72 62 
-5.877150 1.592138 -19.278624 75 79 61 
-5.837838 1.592138 -19.278624 69 70 53 
-5.841584 1.603960 -19.421782 69 64 48 
-5.816377 1.607940 -19.469975 72 62 50 
-5.791045 1.611940 -19.518408 71 62 56 
-5.765586 1.615960 -19.567081 77 67 58 
-5.740000 1.620000 -19.615999 79 72 59 
-5.700000 1.620000 -19.615999 81 72 64 
-5.674185 1.624060 -19.665163 78 72 61 
-5.662468 1.632242 -19.764231 74 69 58 
-5.708440 1.657289 -20.067518 84 74 61 
-5.726098 1.674419 -20.274935 86 79 60 
-5.729167 1.687500 -20.433332 82 74 60 
-5.702350 1.691906 -20.486683 84 76 65 
-5.705263 1.705263 -20.648420 86 83 69 
-5.689373 1.765668 -21.379837 93 82 69 
-5.645777 1.765668 -21.379837 112 93 80 
-5.632877 1.775342 -21.496986 104 87 71 
-5.779037 1.835694 -22.227762 94 78 66 
-5.799427 1.856734 -22.482521 97 81 69 
-5.820290 1.878261 -22.743189 94 79 67 
-2.925926 1.000000 -12.108642 90 88 69 
-2.901235 1.000000 -12.108642 91 92 68 
-2.912500 1.012500 -12.260000 75 75 56 
-2.887500 1.012500 -12.260000 58 62 50 
-2.862500 1.012500 -12.260000 55 59 54 
-3.546875 1.265625 -15.325000 51 55 49 
-3.515625 1.265625 -15.325000 62 57 60 
-3.484375 1.265625 -15.325000 99 91 90 
-1.544643 0.723214 -8.757143 58 63 45 
-1.526786 0.723214 -8.757143 63 63 45 
-1.508929 0.723214 -8.757143 63 55 44 
-1.491071 0.723214 -8.757143 62 60 44 
-1.473214 0.723214 -8.757143 60 58 49 
-1.455357 0.723214 -8.757143 67 64 57 
-1.437500 0.723214 -8.757143 73 72 53 
-1.419643 0.723214 -8.757143 87 87 61 
-1.401786 0.723214 -8.757143 99 100 79 
-1.383929 0.723214 -8.757143 111 113 106 
-1.366071 0.723214 -8.757143 130 125 122 
-1.348214 0.723214 -8.757143 119 131 111 
-1.330357 0.723214 -8.757143 91 105 82 
-1.312500 0.723214 -8.757143 74 77 58 
-1.294643 0.723214 -8.757143 43 50 38 
-1.276786 0.723214 -8.757143 56 50 50 
-1.258929 0.723214 -8.757143 73 67 56 
-2.895833 1.687500 -20.433332 97 94 64 
-1.162500 1.012500 -12.260000 129 110 84 
-1.137500 1.012500 -12.260000 170 168 137 
-1.112500 1.012500 -12.260000 197 202 169 
-0.906250 0.843750 -10.216666 221 207 183 
-0.885417 0.843750 -10.216666 240 236 230 
-0.864583 0.843750 -10.216666 210 216 203 
-0.843750 0.843750 -10.216666 225 216 202 
-0.822917 0.843750 -10.216666 210 174 142 
3.720635 1.028571 -12.454603 91 87 77 
3.687500 1.012500 -12.260000 91 86 77 
3.661017 0.998459 -12.089985 90 85 78 
3.674347 0.995392 -12.052841 91 84 76 
3.670732 0.987805 -11.960976 91 83 76 
3.695122 0.987805 -11.960976 89 83 75 
9.656250 2.531250 -30.650000 88 81 74 
9.718750 2.531250 -30.650000 89 83 75 
9.781250 2.531250 -30.650000 90 83 75 
9.843750 2.531250 -30.650000 90 83 74 
9.906250 2.531250 -30.650000 90 84 76 
11.906250 2.531250 -30.650000 19 18 16 
11.968750 2.531250 -30.650000 26 24 18 
12.031250 2.531250 -30.650000 35 31 23 
12.093750 2.531250 -30.650000 39 34 25 
12.156250 2.531250 -30.650000 40 35 27 
12.218750 2.531250 -30.650000 41 35 27 
12.281250 2.531250 -30.650000 41 35 26 
11.879700 2.436090 -29.497744 41 35 27 
11.850746 2.417910 -29.277611 40 34 26 
11.866171 2.408922 -29.168774 40 34 26 
11.881481 2.400000 -29.060740 41 35 26 
11.852942 2.382353 -28.847059 41 35 27 
11.911765 2.382353 -28.847059 41 35 27 
11.970589 2.382353 -28.847059 41 36 27 
12.029411 2.382353 -28.847059 41 36 26 
12.043956 2.373626 -28.741392 41 36 26 
12.102564 2.373626 -28.741392 41 36 26 
12.161172 2.373626 -28.741392 41 36 26 
12.219780 2.373626 -28.741392 41 36 26 
12.233577 2.364964 -28.636496 41 36 26 
12.336996 2.373626 -28.741392 41 35 26 
12.395604 2.373626 -28.741392 40 35 27 
12.454212 2.373626 -28.741392 41 36 27 
12.512820 2.373626 -28.741392 42 35 26 
12.571428 2.373626 -28.741392 41 35 26 
12.630036 2.373626 -28.741392 41 35 26 
12.735294 2.382353 -28.847059 42 35 26 
12.794118 2.382353 -28.847059 41 36 26 
12.852942 2.382353 -28.847059 40 35 25 
12.911765 2.382353 -28.847059 40 35 25 
12.970589 2.382353 -28.847059 40 34 25 
13.029411 2.382353 -28.847059 40 34 25 
13.088235 2.382353 -28.847059 39 34 25 
13.147058 2.382353 -28.847059 39 34 25 
13.205882 2.382353 -28.847059 38 34 24 
13.264706 2.382353 -28.847059 39 34 25 
13.323529 2.382353 -28.847059 40 34 26 
13.382353 2.382353 -28.847059 39 34 25 
13.441176 2.382353 -28.847059 39 34 26 
13.500000 2.382353 -28.847059 39 34 25 
13.558824 2.382353 -28.847059 39 34 25 
13.617647 2.382353 -28.847059 39 34 25 
13.676471 2.382353 -28.847059 38 34 24 
13.735294 2.382353 -28.847059 39 34 24 
13.794118 2.382353 -28.847059 39 34 25 
13.852942 2.382353 -28.847059 39 33 25 
13.911765 2.382353 -28.847059 38 32 25 
13.970589 2.382353 -28.847059 37 32 24 
14.029411 2.382353 -28.847059 36 32 23 
14.088235 2.382353 -28.847059 37 32 24 
14.199262 2.391144 -28.953505 37 32 24 
14.258303 2.391144 -28.953505 36 32 24 
14.317343 2.391144 -28.953505 37 32 24 
14.376384 2.391144 -28.953505 37 32 23 
14.488889 2.400000 -29.060740 36 32 23 
14.548148 2.400000 -29.060740 36 31 23 
10.480620 1.674419 -20.274935 34 29 23 
10.521964 1.674419 -20.274935 34 29 22 
10.563308 1.674419 -20.274935 32 28 22 
10.632124 1.678756 -20.327461 32 28 21 
10.673575 1.678756 -20.327461 32 27 20 
10.715026 1.678756 -20.327461 31 27 20 
10.756476 1.678756 -20.327461 30 27 19 
10.797928 1.678756 -20.327461 30 27 20 
10.839378 1.678756 -20.327461 30 26 20 
10.880829 1.678756 -20.327461 29 25 19 
10.922279 1.678756 -20.327461 29 25 18 
10.963731 1.678756 -20.327461 29 25 19 
11.005181 1.678756 -20.327461 29 25 19 
11.046632 1.678756 -20.327461 28 24 18 
13.689441 2.012422 -24.367702 27 22 17 
13.739130 2.012422 -24.367702 27 22 18 
13.788820 2.012422 -24.367702 27 23 17 
13.838510 2.012422 -24.367702 26 22 17 
13.888199 2.012422 -24.367702 25 22 17 
13.937888 2.012422 -24.367702 25 21 16 
13.987577 2.012422 -24.367702 23 20 16 
14.037267 2.012422 -24.367702 23 20 16 
14.086957 2.012422 -24.367702 22 20 16 
14.136646 2.012422 -24.367702 23 21 17 
14.186336 2.012422 -24.367702 23 20 17 
14.236025 2.012422 -24.367702 24 20 16 
14.285714 2.012422 -24.367702 23 20 15 
14.335403 2.012422 -24.367702 23 19 15 
14.385093 2.012422 -24.367702 23 18 15 
14.434783 2.012422 -24.367702 22 18 15 
14.439629 2.006192 -24.292259 22 18 14 
14.534162 2.012422 -24.367702 21 18 14 
-5.365517 1.089655 -13.528275 46 55 49 
-5.337931 1.089655 -13.528275 49 50 53 
-5.319516 1.091537 -13.551641 72 68 91 
-5.301038 1.093426 -13.575087 120 107 122 
-5.291667 1.097222 -13.622222 105 113 98 
-5.263889 1.097222 -13.622222 59 71 68 
-5.245217 1.099130 -13.645913 64 64 61 
-5.244755 1.104895 -13.717483 66 71 61 
-5.253521 1.112676 -13.814084 89 80 84 
-5.262411 1.120567 -13.912057 124 100 102 
-5.262032 1.126560 -13.986453 103 111 101 
-5.242857 1.128571 -14.011429 74 86 72 
-5.232975 1.132617 -14.061648 77 84 70 
-5.223022 1.136691 -14.112230 85 100 89 
-5.212996 1.140794 -14.163177 82 110 99 
-5.221818 1.149091 -14.266182 65 95 91 
-5.221207 1.155393 -14.344424 51 63 56 
-5.211009 1.159633 -14.397064 51 53 48 
-5.210332 1.166052 -14.476752 55 56 48 
-5.209648 1.172542 -14.557328 59 65 55 
-5.218692 1.181308 -14.666168 64 71 54 
-5.208255 1.185741 -14.721201 62 70 53 
-5.197740 1.190207 -14.776648 70 71 66 
-5.177359 1.192453 -14.804528 88 91 86 
-5.166667 1.196970 -14.860606 104 107 91 
-5.175572 1.206107 -14.974046 88 102 79 
-5.174664 1.213052 -15.060268 70 84 66 
-5.214008 1.229572 -15.265369 70 79 60 
-5.223529 1.239216 -15.385098 77 83 68 
-5.222880 1.246548 -15.476134 88 100 83 
-5.243028 1.258964 -15.630279 103 117 102 
-5.232000 1.264000 -15.692800 104 124 113 
-5.220883 1.269076 -15.755823 86 107 93 
-5.199195 1.271630 -15.787525 79 84 72 
-5.177419 1.274194 -15.819355 85 77 69 
-5.145161 1.274194 -15.819355 97 83 72 
-5.133603 1.279352 -15.883401 97 90 70 
-5.101214 1.279352 -15.883401 92 93 79 
-5.079107 1.281947 -15.915619 90 102 87 
-5.036437 1.279352 -15.883401 86 98 75 
-5.014199 1.281947 -15.915619 72 80 68 
-5.985185 1.560494 -19.373827 75 71 55 
-5.916462 1.552826 -19.278624 80 72 56 
-5.877150 1.552826 -19.278624 84 74 61 
-5.837838 1.552826 -19.278624 77 69 56 
-5.841584 1.564356 -19.421782 67 65 51 
-5.830846 1.572139 -19.518408 75 68 62 
-5.791045 1.572139 -19.518408 85 77 72 
-5.765586 1.576060 -19.567081 82 80 69 
-5.740000 1.580000 -19.615999 80 76 65 
-5.700000 1.580000 -19.615999 79 72 63 
-5.688442 1.587940 -19.714573 74 68 57 
-5.676768 1.595960 -19.814140 75 68 56 
-5.723077 1.620513 -20.118975 81 74 59 
-5.726098 1.633075 -20.274935 88 83 64 
-5.729167 1.645833 -20.433332 90 82 66 
-5.702350 1.650131 -20.486683 94 83 71 
-5.690289 1.658793 -20.594225 94 86 68 
-5.673913 1.717391 -21.321739 85 88 69 
-5.630435 1.717391 -21.321739 87 91 74 
-5.617486 1.726776 -21.438251 91 84 68 
-5.779037 1.790368 -22.227762 92 81 71 
-5.816092 1.816092 -22.547127 97 82 69 
-5.854228 1.842566 -22.875801 96 78 65 
-5.876106 1.864307 -23.145723 81 70 61 
-2.925926 0.975309 -12.108642 99 82 69 
-2.901235 0.975309 -12.108642 103 85 73 
-2.912500 0.987500 -12.260000 76 76 59 
-2.887500 0.987500 -12.260000 62 62 49 
-2.862500 0.987500 -12.260000 63 62 52 
-3.546875 1.234375 -15.325000 64 64 54 
-3.515625 1.234375 -15.325000 67 67 58 
-3.484375 1.234375 -15.325000 84 83 75 
-1.544643 0.705357 -8.757143 68 64 49 
-1.526786 0.705357 -8.757143 68 59 43 
-1.508929 0.705357 -8.757143 57 52 43 
-1.491071 0.705357 -8.757143 55 56 47 
-1.473214 0.705357 -8.757143 61 60 55 
-1.455357 0.705357 -8.757143 84 75 64 
-1.437500 0.705357 -8.757143 78 76 58 
-1.419643 0.705357 -8.757143 81 82 63 
-1.401786 0.705357 -8.757143 88 88 74 
-1.383929 0.705357 -8.757143 98 97 90 
-1.366071 0.705357 -8.757143 101 102 89 
-1.348214 0.705357 -8.757143 118 120 98 
-1.330357 0.705357 -8.757143 121 137 123 
-1.312500 0.705357 -8.757143 64 76 69 
-1.294643 0.705357 -8.757143 44 49 40 
-1.276786 0.705357 -8.757143 72 70 58 
-1.258929 0.705357 -8.757143 83 90 62 
-2.895833 1.645833 -20.433332 83 87 61 
-1.162500 0.987500 -12.260000 135 114 95 
-1.137500 0.987500 -12.260000 202 188 187 
-1.112500 0.987500 -12.260000 225 207 182 
-0.906250 0.822917 -10.216666 224 202 168 
-0.885417 0.822917 -10.216666 218 214 182 
-0.864583 0.822917 -10.216666 165 158 130 
-0.843750 0.822917 -10.216666 166 139 107 
-0.822917 0.822917 -10.216666 171 128 103 
3.714739 1.001585 -12.434865 91 85 76 
3.687500 0.987500 -12.260000 90 85 77 
3.655385 0.972308 -12.071384 91 85 77 
3.663093 0.967841 -12.015926 91 84 76 
3.670732 0.963415 -11.960976 91 83 76 
3.695122 0.963415 -11.960976 91 83 74 
9.656250 2.468750 -30.650000 89 82 74 
9.718750 2.468750 -30.650000 90 84 75 
9.781250 2.468750 -30.650000 90 84 75 
9.843750 2.468750 -30.650000 90 84 75 
9.906250 2.468750 -30.650000 90 84 76 
10.843750 2.468750 -30.650000 90 85 75 
10.906250 2.468750 -30.650000 90 83 75 
10.968750 2.468750 -30.650000 89 82 73 
11.031250 2.468750 -30.650000 82 71 67 
11.093750 2.468750 -30.650000 58 51 50 
11.156250 2.468750 -30.650000 48 43 37 
11.781250 2.468750 -30.650000 32 25 25 
11.843750 2.468750 -30.650000 24 20 19 
11.906250 2.468750 -30.650000 22 20 16 
11.968750 2.468750 -30.650000 31 27 22 
12.031250 2.468750 -30.650000 38 33 27 
12.093750 2.468750 -30.650000 40 35 27 
12.156250 2.468750 -30.650000 41 35 27 
12.218750 2.468750 -30.650000 41 35 27 
12.281250 2.468750 -30.650000 41 35 27 
12.343750 2.468750 -30.650000 40 36 28 
12.406250 2.468750 -30.650000 40 35 28 
12.000000 2.375940 -29.497744 40 34 28 
11.970149 2.358209 -29.277611 41 36 27 
11.940741 2.340741 -29.060740 41 36 27 
11.911765 2.323529 -28.847059 41 36 27 
11.970589 2.323529 -28.847059 41 35 28 
12.029411 2.323529 -28.847059 41 36 28 
12.043956 2.315018 -28.741392 42 35 28 
12.102564 2.315018 -28.741392 42 35 28 
12.116788 2.306569 -28.636496 42 35 28 
12.175182 2.306569 -28.636496 41 36 27 
12.233577 2.306569 -28.636496 41 36 27 
12.291971 2.306569 -28.636496 41 34 27 
12.350365 2.306569 -28.636496 41 35 28 
12.454212 2.315018 -28.741392 41 36 27 
12.512820 2.315018 -28.741392 42 35 26 
12.571428 2.315018 -28.741392 41 34 27 
12.630036 2.315018 -28.741392 39 34 26 
12.688644 2.315018 -28.741392 40 35 26 
12.794118 2.323529 -28.847059 40 35 26 
12.852942 2.323529 -28.847059 39 35 26 
12.911765 2.323529 -28.847059 40 34 26 
12.970589 2.323529 -28.847059 41 34 27 
13.029411 2.323529 -28.847059 39 34 26 
13.088235 2.323529 -28.847059 38 34 25 
13.147058 2.323529 -28.847059 38 34 25 
13.205882 2.323529 -28.847059 37 34 26 
13.264706 2.323529 -28.847059 38 34 25 
13.323529 2.323529 -28.847059 39 33 25 
13.382353 2.323529 -28.847059 38 33 24 
13.441176 2.323529 -28.847059 38 33 24 
13.500000 2.323529 -28.847059 38 33 24 
13.558824 2.323529 -28.847059 37 32 23 
13.617647 2.323529 -28.847059 38 33 24 
13.676471 2.323529 -28.847059 38 33 24 
13.735294 2.323529 -28.847059 38 33 24 
13.794118 2.323529 -28.847059 38 33 25 
13.852942 2.323529 -28.847059 39 32 25 
13.911765 2.323529 -28.847059 38 32 24 
13.970589 2.323529 -28.847059 37 32 23 
14.029411 2.323529 -28.847059 37 32 23 
14.088235 2.323529 -28.847059 37 32 24 
14.147058 2.323529 -28.847059 37 32 24 
14.205882 2.323529 -28.847059 37 32 24 
14.317343 2.332103 -28.953505 37 31 24 
14.376384 2.332103 -28.953505 36 31 24 
14.488889 2.340741 -29.060740 35 31 23 
14.548148 2.340741 -29.060740 35 31 23 
10.480620 1.633075 -20.274935 34 30 22 
10.521964 1.633075 -20.274935 34 29 22 
10.563308 1.633075 -20.274935 34 29 23 
10.604651 1.633075 -20.274935 33 28 22 
10.673575 1.637306 -20.327461 33 29 21 
10.715026 1.637306 -20.327461 33 29 20 
10.756476 1.637306 -20.327461 32 29 20 
10.797928 1.637306 -20.327461 33 28 21 
10.839378 1.637306 -20.327461 32 29 21 
15.910448 2.358209 -29.277611 31 27 20 
13.739130 1.962733 -24.367702 32 26 19 
13.788820 1.962733 -24.367702 31 27 19 
13.838510 1.962733 -24.367702 30 27 18 
